# .PCD v0.7 - Point Cloud Data file format
VERSION 0.7
FIELDS x y z
SIZE 4 4 4
TYPE F F F
COUNT 1 1 1
WIDTH 1580
HEIGHT 1
VIEWPOINT 0 0 0 1 0 0 0
POINTS 1580
DATA ascii
1.8440781 -3.5532227 0.53489995
1.8440781 -3.5532227 0.56459999
1.8440781 -3.5532227 0.59429997
1.8440781 -3.5532227 0.62399995
1.8440781 -3.5532227 0.65369999
1.8440781 -3.5532227 0.68339998
1.8440781 -3.5532227 0.71309996
1.8440781 -3.5532227 0.7428
1.8440781 -3.5532227 0.77249998
1.8440781 -3.5532227 0.80219996
1.8440781 -3.5532227 0.83189994
1.8440781 -3.5532227 0.86159998
1.8440781 -3.5532227 0.89129996
1.8440781 -3.5532227 0.92099994
1.8440781 -3.5532227 0.95069999
1.8440781 -3.5532227 0.98039997
1.8440781 -3.5532227 1.0101
1.8440781 -3.5832081 0.029999999
1.8440781 -3.5832081 0.059700001
1.8440781 -3.5832081 0.089400001
1.8440781 -3.5832081 0.1191
1.8440781 -3.5832081 0.1488
1.8440781 -3.5832081 0.1785
1.8440781 -3.5832081 0.20820001
1.8440781 -3.5832081 0.2379
1.8440781 -3.5832081 0.2676
1.8440781 -3.5832081 0.29730001
1.8440781 -3.5832081 0.32699999
1.8440781 -3.5832081 0.3567
1.8440781 -3.5832081 0.38640001
1.8440781 -3.5832081 0.4161
1.8440781 -3.5832081 0.44580001
1.8440781 -3.5832081 0.47549999
1.8440781 -3.5832081 0.50519997
1.8440781 -3.5832081 0.53489995
1.8440781 -3.5832081 0.56459999
1.8440781 -3.5832081 0.59429997
1.8440781 -3.5832081 0.62399995
1.8440781 -3.5832081 0.65369999
1.8440781 -3.5832081 0.68339998
1.8440781 -3.5832081 0.71309996
1.8440781 -3.5832081 0.7428
1.8440781 -3.5832081 0.77249998
1.8440781 -3.5832081 0.80219996
1.8440781 -3.5832081 0.83189994
1.8440781 -3.5832081 0.86159998
1.8440781 -3.5832081 0.89129996
1.8440781 -3.5832081 0.92099994
1.8440781 -3.5832081 0.95069999
1.8440781 -3.5832081 0.98039997
1.8440781 -3.5832081 1.0101
1.8440781 -3.6131935 0.029999999
1.8440781 -3.6131935 0.059700001
1.8440781 -3.6131935 0.089400001
1.8440781 -3.6131935 0.1191
1.8440781 -3.6131935 0.1488
1.8440781 -3.6131935 0.1785
1.8440781 -3.6131935 0.20820001
1.8440781 -3.6131935 0.2379
1.8440781 -3.6131935 0.2676
1.8440781 -3.6131935 0.29730001
1.8440781 -3.6131935 0.32699999
1.8440781 -3.6131935 0.3567
1.8440781 -3.6131935 0.38640001
1.8440781 -3.6131935 0.4161
1.8440781 -3.6131935 0.44580001
1.8440781 -3.6131935 0.47549999
1.8440781 -3.6131935 0.50519997
1.8440781 -3.6131935 0.53489995
1.8440781 -3.6131935 0.56459999
1.8440781 -3.6131935 0.59429997
1.8440781 -3.6131935 0.62399995
1.8440781 -3.6131935 0.65369999
1.8440781 -3.6131935 0.68339998
1.8440781 -3.6131935 0.71309996
1.8440781 -3.6131935 0.7428
1.8440781 -3.6131935 0.77249998
1.8440781 -3.6131935 0.80219996
1.8440781 -3.6131935 0.83189994
1.8440781 -3.6131935 0.86159998
1.8440781 -3.6131935 0.89129996
1.8440781 -3.6131935 0.92099994
1.8440781 -3.6131935 0.95069999
1.8440781 -3.6131935 0.98039997
1.8440781 -3.6131935 1.0101
1.8440781 -3.643178 0.029999999
1.8440781 -3.643178 0.059700001
1.8440781 -3.643178 0.089400001
1.8440781 -3.643178 0.1191
1.8440781 -3.643178 0.1488
1.8440781 -3.643178 0.1785
1.8440781 -3.643178 0.20820001
1.8440781 -3.643178 0.2379
1.8440781 -3.643178 0.2676
1.8440781 -3.643178 0.29730001
1.8440781 -3.643178 0.32699999
1.8440781 -3.643178 0.3567
1.8440781 -3.643178 0.38640001
1.8440781 -3.643178 0.4161
1.8440781 -3.643178 0.44580001
1.8440781 -3.643178 0.47549999
1.8440781 -3.643178 0.50519997
1.8440781 -3.643178 0.53489995
1.8440781 -3.643178 0.56459999
1.8440781 -3.643178 0.59429997
1.8440781 -3.643178 0.62399995
1.8440781 -3.643178 0.65369999
1.8440781 -3.643178 0.68339998
1.8440781 -3.643178 0.71309996
1.8440781 -3.643178 0.7428
1.8440781 -3.643178 0.77249998
1.8440781 -3.643178 0.80219996
1.8440781 -3.643178 0.83189994
1.8440781 -3.643178 0.86159998
1.8440781 -3.643178 0.89129996
1.8440781 -3.643178 0.92099994
1.8440781 -3.643178 0.95069999
1.8440781 -3.643178 0.98039997
1.8440781 -3.643178 1.0101
1.8440781 -3.6731634 0.029999999
1.8440781 -3.6731634 0.059700001
1.8440781 -3.6731634 0.089400001
1.8440781 -3.6731634 0.1191
1.8440781 -3.6731634 0.1488
1.8440781 -3.6731634 0.1785
1.8440781 -3.6731634 0.20820001
1.8440781 -3.6731634 0.2379
1.8440781 -3.6731634 0.2676
1.8440781 -3.6731634 0.29730001
1.8440781 -3.6731634 0.32699999
1.8440781 -3.6731634 0.3567
1.8440781 -3.6731634 0.38640001
1.8440781 -3.6731634 0.4161
1.8440781 -3.6731634 0.44580001
1.8440781 -3.6731634 0.47549999
1.8440781 -3.6731634 0.50519997
1.8440781 -3.6731634 0.53489995
1.8440781 -3.6731634 0.56459999
1.8440781 -3.6731634 0.59429997
1.8440781 -3.6731634 0.62399995
1.8440781 -3.6731634 0.65369999
1.8440781 -3.6731634 0.68339998
1.8440781 -3.6731634 0.71309996
1.8440781 -3.6731634 0.7428
1.8440781 -3.6731634 0.77249998
1.8440781 -3.6731634 0.80219996
1.8440781 -3.6731634 0.83189994
1.8440781 -3.6731634 0.86159998
1.8440781 -3.6731634 0.89129996
1.8440781 -3.6731634 0.92099994
1.8440781 -3.6731634 0.95069999
1.8440781 -3.6731634 0.98039997
1.8440781 -3.6731634 1.0101
1.8440781 -3.7031479 0.029999999
1.8440781 -3.7031479 0.059700001
1.8440781 -3.7031479 0.089400001
1.8440781 -3.7031479 0.1191
1.8440781 -3.7031479 0.1488
1.8440781 -3.7031479 0.1785
1.8440781 -3.7031479 0.20820001
1.8440781 -3.7031479 0.2379
1.8440781 -3.7031479 0.2676
1.8440781 -3.7031479 0.29730001
1.8440781 -3.7031479 0.32699999
1.8440781 -3.7031479 0.3567
1.8440781 -3.7031479 0.38640001
1.8440781 -3.7031479 0.4161
1.8440781 -3.7031479 0.44580001
1.8440781 -3.7031479 0.47549999
1.8440781 -3.7031479 0.50519997
1.8440781 -3.7031479 0.53489995
1.8440781 -3.7031479 0.56459999
1.8440781 -3.7031479 0.59429997
1.8440781 -3.7031479 0.62399995
1.8440781 -3.7031479 0.65369999
1.8440781 -3.7031479 0.68339998
1.8440781 -3.7031479 0.71309996
1.8440781 -3.7031479 0.7428
1.8440781 -3.7031479 0.77249998
1.8440781 -3.7031479 0.80219996
1.8440781 -3.7031479 0.83189994
1.8440781 -3.7031479 0.86159998
1.8440781 -3.7031479 0.89129996
1.8440781 -3.7031479 0.92099994
1.8440781 -3.7031479 0.95069999
1.8440781 -3.7031479 0.98039997
1.8440781 -3.7031479 1.0101
1.8440781 -3.7331333 0.029999999
1.8440781 -3.7331333 0.059700001
1.8440781 -3.7331333 0.089400001
1.8440781 -3.7331333 0.1191
1.8440781 -3.7331333 0.1488
1.8440781 -3.7331333 0.1785
1.8440781 -3.7331333 0.20820001
1.8440781 -3.7331333 0.2379
1.8440781 -3.7331333 0.2676
1.8440781 -3.7331333 0.29730001
1.8440781 -3.7331333 0.32699999
1.8440781 -3.7331333 0.3567
1.8440781 -3.7331333 0.38640001
1.8440781 -3.7331333 0.4161
1.8440781 -3.7331333 0.44580001
1.8440781 -3.7331333 0.47549999
1.8440781 -3.7331333 0.50519997
1.8440781 -3.7331333 0.53489995
1.8440781 -3.7331333 0.56459999
1.8440781 -3.7331333 0.59429997
1.8440781 -3.7331333 0.62399995
1.8440781 -3.7331333 0.65369999
1.8440781 -3.7331333 0.68339998
1.8440781 -3.7331333 0.71309996
1.8440781 -3.7331333 0.7428
1.8440781 -3.7331333 0.77249998
1.8440781 -3.7331333 0.80219996
1.8440781 -3.7331333 0.83189994
1.8440781 -3.7331333 0.86159998
1.8440781 -3.7331333 0.89129996
1.8440781 -3.7331333 0.92099994
1.8440781 -3.7331333 0.95069999
1.8440781 -3.7331333 0.98039997
1.8440781 -3.7331333 1.0101
1.8440781 -3.7631178 0.029999999
1.8440781 -3.7631178 0.059700001
1.8440781 -3.7631178 0.089400001
1.8440781 -3.7631178 0.1191
1.8440781 -3.7631178 0.1488
1.8440781 -3.7631178 0.1785
1.8440781 -3.7631178 0.20820001
1.8440781 -3.7631178 0.2379
1.8440781 -3.7631178 0.2676
1.8440781 -3.7631178 0.29730001
1.8440781 -3.7631178 0.32699999
1.8440781 -3.7631178 0.3567
1.8440781 -3.7631178 0.38640001
1.8440781 -3.7631178 0.4161
1.8440781 -3.7631178 0.44580001
1.8440781 -3.7631178 0.47549999
1.8440781 -3.7631178 0.50519997
1.8440781 -3.7631178 0.53489995
1.8440781 -3.7631178 0.56459999
1.8440781 -3.7631178 0.59429997
1.8440781 -3.7631178 0.62399995
1.8440781 -3.7631178 0.65369999
1.8440781 -3.7631178 0.68339998
1.8440781 -3.7631178 0.71309996
1.8440781 -3.7631178 0.7428
1.8440781 -3.7631178 0.77249998
1.8440781 -3.7631178 0.80219996
1.8440781 -3.7631178 0.83189994
1.8440781 -3.7631178 0.86159998
1.8440781 -3.7631178 0.89129996
1.8440781 -3.7631178 0.92099994
1.8440781 -3.7631178 0.95069999
1.8440781 -3.7631178 0.98039997
1.8440781 -3.7631178 1.0101
1.8440781 -3.7931032 0.029999999
1.8440781 -3.7931032 0.059700001
1.8440781 -3.7931032 0.089400001
1.8440781 -3.7931032 0.1191
1.8440781 -3.7931032 0.1488
1.8440781 -3.7931032 0.1785
1.8440781 -3.7931032 0.20820001
1.8440781 -3.7931032 0.2379
1.8440781 -3.7931032 0.2676
1.8440781 -3.7931032 0.29730001
1.8440781 -3.7931032 0.32699999
1.8440781 -3.7931032 0.3567
1.8440781 -3.7931032 0.38640001
1.8440781 -3.7931032 0.4161
1.8440781 -3.7931032 0.44580001
1.8440781 -3.7931032 0.47549999
1.8440781 -3.7931032 0.50519997
1.8440781 -3.7931032 0.53489995
1.8440781 -3.7931032 0.56459999
1.8440781 -3.7931032 0.59429997
1.8440781 -3.7931032 0.62399995
1.8440781 -3.7931032 0.65369999
1.8440781 -3.7931032 0.68339998
1.8440781 -3.7931032 0.71309996
1.8440781 -3.7931032 0.7428
1.8440781 -3.7931032 0.77249998
1.8440781 -3.7931032 0.80219996
1.8440781 -3.7931032 0.83189994
1.8440781 -3.7931032 0.86159998
1.8440781 -3.7931032 0.89129996
1.8440781 -3.7931032 0.92099994
1.8440781 -3.7931032 0.95069999
1.8440781 -3.7931032 0.98039997
1.8440781 -3.7931032 1.0101
1.8440781 -3.8230886 0.029999999
1.8440781 -3.8230886 0.059700001
1.8440781 -3.8230886 0.089400001
1.8440781 -3.8230886 0.1191
1.8440781 -3.8230886 0.1488
1.8440781 -3.8230886 0.1785
1.8440781 -3.8230886 0.20820001
1.8440781 -3.8230886 0.2379
1.8440781 -3.8230886 0.2676
1.8440781 -3.8230886 0.29730001
1.8440781 -3.8230886 0.32699999
1.8440781 -3.8230886 0.3567
1.8440781 -3.8230886 0.38640001
1.8440781 -3.8230886 0.4161
1.8440781 -3.8230886 0.44580001
1.8440781 -3.8230886 0.47549999
1.8440781 -3.8230886 0.50519997
1.8440781 -3.8230886 0.53489995
1.8440781 -3.8230886 0.56459999
1.8440781 -3.8230886 0.59429997
1.8440781 -3.8230886 0.62399995
1.8440781 -3.8230886 0.65369999
1.8440781 -3.8230886 0.68339998
1.8440781 -3.8230886 0.71309996
1.8440781 -3.8230886 0.7428
1.8440781 -3.8230886 0.77249998
1.8440781 -3.8230886 0.80219996
1.8440781 -3.8230886 0.83189994
1.8440781 -3.8230886 0.86159998
1.8440781 -3.8230886 0.89129996
1.8440781 -3.8230886 0.92099994
1.8440781 -3.8230886 0.95069999
1.8440781 -3.8230886 0.98039997
1.8440781 -3.8230886 1.0101
1.8440781 -3.8530731 0.029999999
1.8440781 -3.8530731 0.059700001
1.8440781 -3.8530731 0.089400001
1.8440781 -3.8530731 0.1191
1.8440781 -3.8530731 0.1488
1.8440781 -3.8530731 0.1785
1.8440781 -3.8530731 0.20820001
1.8440781 -3.8530731 0.2379
1.8440781 -3.8530731 0.2676
1.8440781 -3.8530731 0.29730001
1.8440781 -3.8530731 0.32699999
1.8440781 -3.8530731 0.3567
1.8440781 -3.8530731 0.38640001
1.8440781 -3.8530731 0.4161
1.8440781 -3.8530731 0.44580001
1.8440781 -3.8530731 0.47549999
1.8440781 -3.8530731 0.50519997
1.8440781 -3.8530731 0.53489995
1.8440781 -3.8530731 0.56459999
1.8440781 -3.8530731 0.59429997
1.8440781 -3.8530731 0.62399995
1.8440781 -3.8530731 0.65369999
1.8440781 -3.8530731 0.68339998
1.8440781 -3.8530731 0.71309996
1.8440781 -3.8530731 0.7428
1.8440781 -3.8530731 0.77249998
1.8440781 -3.8530731 0.80219996
1.8440781 -3.8530731 0.83189994
1.8440781 -3.8530731 0.86159998
1.8440781 -3.8530731 0.89129996
1.8440781 -3.8530731 0.92099994
1.8440781 -3.8530731 0.95069999
1.8440781 -3.8530731 0.98039997
1.8440781 -3.8530731 1.0101
1.8440781 -3.8830585 0.029999999
1.8440781 -3.8830585 0.059700001
1.8440781 -3.8830585 0.089400001
1.8440781 -3.8830585 0.1191
1.8440781 -3.8830585 0.1488
1.8440781 -3.8830585 0.1785
1.8440781 -3.8830585 0.20820001
1.8440781 -3.8830585 0.2379
1.8440781 -3.8830585 0.2676
1.8440781 -3.8830585 0.29730001
1.8440781 -3.8830585 0.32699999
1.8440781 -3.8830585 0.3567
1.8440781 -3.8830585 0.38640001
1.8440781 -3.8830585 0.4161
1.8440781 -3.8830585 0.44580001
1.8440781 -3.8830585 0.47549999
1.8440781 -3.8830585 0.50519997
1.8440781 -3.8830585 0.53489995
1.8440781 -3.8830585 0.56459999
1.8440781 -3.8830585 0.59429997
1.8440781 -3.8830585 0.62399995
1.8440781 -3.8830585 0.65369999
1.8440781 -3.8830585 0.68339998
1.8440781 -3.8830585 0.71309996
1.8440781 -3.8830585 0.7428
1.8440781 -3.8830585 0.77249998
1.8440781 -3.8830585 0.80219996
1.8440781 -3.8830585 0.83189994
1.8440781 -3.8830585 0.86159998
1.8440781 -3.8830585 0.89129996
1.8440781 -3.8830585 0.92099994
1.8440781 -3.8830585 0.95069999
1.8440781 -3.8830585 0.98039997
1.8440781 -3.8830585 1.0101
1.8440781 -3.913043 0.029999999
1.8440781 -3.913043 0.059700001
1.8440781 -3.913043 0.089400001
1.8440781 -3.913043 0.1191
1.8440781 -3.913043 0.1488
1.8440781 -3.913043 0.1785
1.8440781 -3.913043 0.20820001
1.8440781 -3.913043 0.2379
1.8440781 -3.913043 0.2676
1.8440781 -3.913043 0.29730001
1.8440781 -3.913043 0.32699999
1.8440781 -3.913043 0.3567
1.8440781 -3.913043 0.38640001
1.8440781 -3.913043 0.4161
1.8440781 -3.913043 0.44580001
1.8440781 -3.913043 0.47549999
1.8440781 -3.913043 0.50519997
1.8440781 -3.913043 0.53489995
1.8440781 -3.913043 0.56459999
1.8440781 -3.913043 0.59429997
1.8440781 -3.913043 0.62399995
1.8440781 -3.913043 0.65369999
1.8440781 -3.913043 0.68339998
1.8440781 -3.913043 0.71309996
1.8440781 -3.913043 0.7428
1.8440781 -3.913043 0.77249998
1.8440781 -3.913043 0.80219996
1.8440781 -3.913043 0.83189994
1.8440781 -3.913043 0.86159998
1.8440781 -3.913043 0.89129996
1.8440781 -3.913043 0.92099994
1.8440781 -3.913043 0.95069999
1.8440781 -3.913043 0.98039997
1.8440781 -3.913043 1.0101
1.8440781 -3.9430285 0.029999999
1.8440781 -3.9430285 0.059700001
1.8440781 -3.9430285 0.089400001
1.8440781 -3.9430285 0.1191
1.8440781 -3.9430285 0.1488
1.8440781 -3.9430285 0.1785
1.8440781 -3.9430285 0.20820001
1.8440781 -3.9430285 0.2379
1.8440781 -3.9430285 0.2676
1.8440781 -3.9430285 0.29730001
1.8440781 -3.9430285 0.32699999
1.8440781 -3.9430285 0.3567
1.8440781 -3.9430285 0.38640001
1.8440781 -3.9430285 0.4161
1.8440781 -3.9430285 0.44580001
1.8440781 -3.9430285 0.47549999
1.8440781 -3.9430285 0.50519997
1.8440781 -3.9430285 0.53489995
1.8440781 -3.9430285 0.56459999
1.8440781 -3.9430285 0.59429997
1.8440781 -3.9430285 0.62399995
1.8440781 -3.9430285 0.65369999
1.8440781 -3.9430285 0.68339998
1.8440781 -3.9430285 0.71309996
1.8440781 -3.9430285 0.7428
1.8440781 -3.9430285 0.77249998
1.8440781 -3.9430285 0.80219996
1.8440781 -3.9430285 0.83189994
1.8440781 -3.9430285 0.86159998
1.8440781 -3.9430285 0.89129996
1.8440781 -3.9430285 0.92099994
1.8440781 -3.9430285 0.95069999
1.8440781 -3.9430285 0.98039997
2.7436275 1.0644684 0.029999999
2.7436275 1.0644684 0.059700001
2.7436275 1.0644684 0.089400001
2.7436275 1.0644684 0.1191
2.7436275 1.0644684 0.1488
2.7436275 1.0644684 0.1785
2.7436275 1.0644684 0.20820001
2.7436275 1.0644684 0.2379
2.7436275 1.0644684 0.2676
2.7436275 1.0644684 0.29730001
2.7436275 1.0644684 0.32699999
2.7436275 1.0644684 0.3567
2.7436275 1.0644684 0.38640001
2.7436275 1.0644684 0.4161
2.7436275 1.0644684 0.44580001
2.7436275 1.0644684 0.47549999
2.7436275 1.0644684 0.50519997
2.7436275 1.0644684 0.53489995
2.7436275 1.0644684 0.56459999
2.7436275 1.0644684 0.59429997
2.7436275 1.0644684 0.62399995
2.7436275 1.0644684 0.65369999
2.7436275 1.0644684 0.68339998
2.7436275 1.0644684 0.71309996
2.7436275 1.0644684 0.7428
2.7436275 1.0644684 0.77249998
2.7436275 1.0644684 0.80219996
2.7436275 1.0644684 0.83189994
2.7436275 1.0644684 0.86159998
2.7436275 1.0644684 0.89129996
2.7436275 1.0644684 0.92099994
2.7436275 1.0644684 0.95069999
2.7436275 1.0644684 0.98039997
2.7436275 1.034483 0.029999999
2.7436275 1.034483 0.059700001
2.7436275 1.034483 0.089400001
2.7436275 1.034483 0.1191
2.7436275 1.034483 0.1488
2.7436275 1.034483 0.1785
2.7436275 1.034483 0.20820001
2.7436275 1.034483 0.2379
2.7436275 1.034483 0.2676
2.7436275 1.034483 0.29730001
2.7436275 1.034483 0.32699999
2.7436275 1.034483 0.3567
2.7436275 1.034483 0.38640001
2.7436275 1.034483 0.4161
2.7436275 1.034483 0.44580001
2.7436275 1.034483 0.47549999
2.7436275 1.034483 0.50519997
2.7436275 1.034483 0.53489995
2.7436275 1.034483 0.56459999
2.7436275 1.034483 0.59429997
2.7436275 1.034483 0.62399995
2.7436275 1.034483 0.65369999
2.7436275 1.034483 0.68339998
2.7436275 1.034483 0.71309996
2.7436275 1.034483 0.7428
2.7436275 1.034483 0.77249998
2.7436275 1.034483 0.80219996
2.7436275 1.034483 0.83189994
2.7436275 1.034483 0.86159998
2.7436275 1.034483 0.89129996
2.7436275 1.034483 0.92099994
2.7436275 1.034483 0.95069999
2.7436275 1.034483 0.98039997
2.7436275 1.0044975 0.029999999
2.7436275 1.0044975 0.059700001
2.7436275 1.0044975 0.089400001
2.7436275 1.0044975 0.1191
2.7436275 1.0044975 0.1488
2.7436275 1.0044975 0.1785
2.7436275 1.0044975 0.20820001
2.7436275 1.0044975 0.2379
2.7436275 1.0044975 0.2676
2.7436275 1.0044975 0.29730001
2.7436275 1.0044975 0.32699999
2.7436275 1.0044975 0.3567
2.7436275 1.0044975 0.38640001
2.7436275 1.0044975 0.4161
2.7436275 1.0044975 0.44580001
2.7436275 1.0044975 0.47549999
2.7436275 1.0044975 0.50519997
2.7436275 1.0044975 0.53489995
2.7436275 1.0044975 0.56459999
2.7436275 1.0044975 0.59429997
2.7436275 1.0044975 0.62399995
2.7436275 1.0044975 0.65369999
2.7436275 1.0044975 0.68339998
2.7436275 1.0044975 0.71309996
2.7436275 1.0044975 0.7428
2.7436275 1.0044975 0.77249998
2.7436275 1.0044975 0.80219996
2.7436275 1.0044975 0.83189994
2.7436275 1.0044975 0.86159998
2.7436275 1.0044975 0.89129996
2.7436275 1.0044975 0.92099994
2.7436275 1.0044975 0.95069999
2.7436275 1.0044975 0.98039997
2.7436275 0.97451305 0.029999999
2.7436275 0.97451305 0.059700001
2.7436275 0.97451305 0.089400001
2.7436275 0.97451305 0.1191
2.7436275 0.97451305 0.1488
2.7436275 0.97451305 0.1785
2.7436275 0.97451305 0.20820001
2.7436275 0.97451305 0.2379
2.7436275 0.97451305 0.2676
2.7436275 0.97451305 0.29730001
2.7436275 0.97451305 0.32699999
2.7436275 0.97451305 0.3567
2.7436275 0.97451305 0.38640001
2.7436275 0.97451305 0.4161
2.7436275 0.97451305 0.44580001
2.7436275 0.97451305 0.47549999
2.7436275 0.97451305 0.50519997
2.7436275 0.97451305 0.53489995
2.7436275 0.97451305 0.56459999
2.7436275 0.97451305 0.59429997
2.7436275 0.97451305 0.62399995
2.7436275 0.97451305 0.65369999
2.7436275 0.97451305 0.68339998
2.7436275 0.97451305 0.71309996
2.7436275 0.97451305 0.7428
2.7436275 0.97451305 0.77249998
2.7436275 0.97451305 0.80219996
2.7436275 0.97451305 0.83189994
2.7436275 0.97451305 0.86159998
2.7436275 0.97451305 0.89129996
2.7436275 0.97451305 0.92099994
2.7436275 0.97451305 0.95069999
2.7436275 0.97451305 0.98039997
2.7436275 0.94452763 0.029999999
2.7436275 0.94452763 0.059700001
2.7436275 0.94452763 0.089400001
2.7436275 0.94452763 0.1191
2.7436275 0.94452763 0.1488
2.7436275 0.94452763 0.1785
2.7436275 0.94452763 0.20820001
2.7436275 0.94452763 0.2379
2.7436275 0.94452763 0.2676
2.7436275 0.94452763 0.29730001
2.7436275 0.94452763 0.32699999
2.7436275 0.94452763 0.3567
2.7436275 0.94452763 0.38640001
2.7436275 0.94452763 0.4161
2.7436275 0.94452763 0.44580001
2.7436275 0.94452763 0.47549999
2.7436275 0.94452763 0.50519997
2.7436275 0.94452763 0.53489995
2.7436275 0.94452763 0.56459999
2.7436275 0.94452763 0.59429997
2.7436275 0.94452763 0.62399995
2.7436275 0.94452763 0.65369999
2.7436275 0.94452763 0.68339998
2.7436275 0.94452763 0.71309996
2.7436275 0.94452763 0.7428
2.7436275 0.94452763 0.77249998
2.7436275 0.94452763 0.80219996
2.7436275 0.94452763 0.83189994
2.7436275 0.94452763 0.86159998
2.7436275 0.94452763 0.89129996
2.7436275 0.94452763 0.92099994
2.7436275 0.94452763 0.95069999
2.7436275 0.94452763 0.98039997
2.7436275 0.91454315 0.029999999
2.7436275 0.91454315 0.059700001
2.7436275 0.91454315 0.089400001
2.7436275 0.91454315 0.1191
2.7436275 0.91454315 0.1488
2.7436275 0.91454315 0.1785
2.7436275 0.91454315 0.20820001
2.7436275 0.91454315 0.2379
2.7436275 0.91454315 0.2676
2.7436275 0.91454315 0.29730001
2.7436275 0.91454315 0.32699999
2.7436275 0.91454315 0.3567
2.7436275 0.91454315 0.38640001
2.7436275 0.91454315 0.4161
2.7436275 0.91454315 0.44580001
2.7436275 0.91454315 0.47549999
2.7436275 0.91454315 0.50519997
2.7436275 0.91454315 0.53489995
2.7436275 0.91454315 0.56459999
2.7436275 0.91454315 0.59429997
2.7436275 0.91454315 0.62399995
2.7436275 0.91454315 0.65369999
2.7436275 0.91454315 0.68339998
2.7436275 0.91454315 0.71309996
2.7436275 0.91454315 0.7428
2.7436275 0.91454315 0.77249998
2.7436275 0.91454315 0.80219996
2.7436275 0.91454315 0.83189994
2.7436275 0.91454315 0.86159998
2.7436275 0.91454315 0.89129996
2.7436275 0.91454315 0.92099994
2.7436275 0.91454315 0.95069999
2.7436275 0.91454315 0.98039997
2.7436275 0.88455772 0.029999999
2.7436275 0.88455772 0.059700001
2.7436275 0.88455772 0.089400001
2.7436275 0.88455772 0.1191
2.7436275 0.88455772 0.1488
2.7436275 0.88455772 0.1785
2.7436275 0.88455772 0.20820001
2.7436275 0.88455772 0.2379
2.7436275 0.88455772 0.2676
2.7436275 0.88455772 0.29730001
2.7436275 0.88455772 0.32699999
2.7436275 0.88455772 0.3567
2.7436275 0.88455772 0.38640001
2.7436275 0.88455772 0.4161
2.7436275 0.88455772 0.44580001
2.7436275 0.88455772 0.47549999
2.7436275 0.88455772 0.50519997
2.7436275 0.88455772 0.53489995
2.7436275 0.88455772 0.56459999
2.7436275 0.88455772 0.59429997
2.7436275 0.88455772 0.62399995
2.7436275 0.88455772 0.65369999
2.7436275 0.88455772 0.68339998
2.7436275 0.88455772 0.71309996
2.7436275 0.88455772 0.7428
2.7436275 0.88455772 0.77249998
2.7436275 0.88455772 0.80219996
2.7436275 0.88455772 0.83189994
2.7436275 0.88455772 0.86159998
2.7436275 0.88455772 0.89129996
2.7436275 0.88455772 0.92099994
2.7436275 0.88455772 0.95069999
2.7436275 0.88455772 0.98039997
2.7436275 0.85457325 0.029999999
2.7436275 0.85457325 0.059700001
2.7436275 0.85457325 0.089400001
2.7436275 0.85457325 0.1191
2.7436275 0.85457325 0.1488
2.7436275 0.85457325 0.1785
2.7436275 0.85457325 0.20820001
2.7436275 0.85457325 0.2379
2.7436275 0.85457325 0.2676
2.7436275 0.85457325 0.29730001
2.7436275 0.85457325 0.32699999
2.7436275 0.85457325 0.3567
2.7436275 0.85457325 0.38640001
2.7436275 0.85457325 0.4161
2.7436275 0.85457325 0.44580001
2.7436275 0.85457325 0.47549999
2.7436275 0.85457325 0.50519997
2.7436275 0.85457325 0.53489995
2.7436275 0.85457325 0.56459999
2.7436275 0.85457325 0.59429997
2.7436275 0.85457325 0.62399995
2.7436275 0.85457325 0.65369999
2.7436275 0.85457325 0.68339998
2.7436275 0.85457325 0.71309996
2.7436275 0.85457325 0.7428
2.7436275 0.85457325 0.77249998
2.7436275 0.85457325 0.80219996
2.7436275 0.85457325 0.83189994
2.7436275 0.85457325 0.86159998
2.7436275 0.85457325 0.89129996
2.7436275 0.85457325 0.92099994
2.7436275 0.85457325 0.95069999
2.7436275 0.85457325 0.98039997
2.773613 1.1544228 0.029999999
2.773613 1.1544228 0.059700001
2.773613 1.1544228 0.089400001
2.773613 1.1544228 0.1191
2.773613 1.1544228 0.1488
2.773613 1.1544228 0.1785
2.773613 1.1544228 0.20820001
2.773613 1.1544228 0.2379
2.773613 1.1544228 0.2676
2.773613 1.1544228 0.29730001
2.773613 1.1544228 0.32699999
2.773613 1.1544228 0.3567
2.773613 1.1544228 0.38640001
2.773613 1.1544228 0.4161
2.773613 1.1544228 0.44580001
2.773613 1.1544228 0.47549999
2.773613 1.1544228 0.50519997
2.773613 1.1544228 0.53489995
2.773613 1.1544228 0.56459999
2.773613 1.1544228 0.59429997
2.773613 1.1544228 0.62399995
2.773613 1.1544228 0.65369999
2.773613 1.1544228 0.68339998
2.773613 1.1544228 0.71309996
2.773613 1.1544228 0.7428
2.773613 1.1544228 0.77249998
2.773613 1.1544228 0.80219996
2.773613 1.1544228 0.83189994
2.773613 1.1544228 0.86159998
2.773613 1.1544228 0.89129996
2.773613 1.1544228 0.92099994
2.773613 1.1544228 0.95069999
2.773613 1.1544228 0.98039997
2.773613 1.1244383 0.029999999
2.773613 1.1244383 0.059700001
2.773613 1.1244383 0.089400001
2.773613 1.1244383 0.1191
2.773613 1.1244383 0.1488
2.773613 1.1244383 0.1785
2.773613 1.1244383 0.20820001
2.773613 1.1244383 0.2379
2.773613 1.1244383 0.2676
2.773613 1.1244383 0.29730001
2.773613 1.1244383 0.32699999
2.773613 1.1244383 0.3567
2.773613 1.1244383 0.38640001
2.773613 1.1244383 0.4161
2.773613 1.1244383 0.44580001
2.773613 1.1244383 0.47549999
2.773613 1.1244383 0.50519997
2.773613 1.1244383 0.53489995
2.773613 1.1244383 0.56459999
2.773613 1.1244383 0.59429997
2.773613 1.1244383 0.62399995
2.773613 1.1244383 0.65369999
2.773613 1.1244383 0.68339998
2.773613 1.1244383 0.71309996
2.773613 1.1244383 0.7428
2.773613 1.1244383 0.77249998
2.773613 1.1244383 0.80219996
2.773613 1.1244383 0.83189994
2.773613 1.1244383 0.86159998
2.773613 1.1244383 0.89129996
2.773613 1.1244383 0.92099994
2.773613 1.1244383 0.95069999
2.773613 1.1244383 0.98039997
2.773613 1.1244383 1.0101
2.773613 1.0944529 0.029999999
2.773613 1.0944529 0.059700001
2.773613 1.0944529 0.089400001
2.773613 1.0944529 0.1191
2.773613 1.0944529 0.1488
2.773613 1.0944529 0.1785
2.773613 1.0944529 0.20820001
2.773613 1.0944529 0.2379
2.773613 1.0944529 0.2676
2.773613 1.0944529 0.29730001
2.773613 1.0944529 0.32699999
2.773613 1.0944529 0.3567
2.773613 1.0944529 0.38640001
2.773613 1.0944529 0.4161
2.773613 1.0944529 0.44580001
2.773613 1.0944529 0.47549999
2.773613 1.0944529 0.50519997
2.773613 1.0944529 0.53489995
2.773613 1.0944529 0.56459999
2.773613 1.0944529 0.59429997
2.773613 1.0944529 0.62399995
2.773613 1.0944529 0.65369999
2.773613 1.0944529 0.68339998
2.773613 1.0944529 0.71309996
2.773613 1.0944529 0.7428
2.773613 1.0944529 0.77249998
2.773613 1.0944529 0.80219996
2.773613 1.0944529 0.83189994
2.773613 1.0944529 0.86159998
2.773613 1.0944529 0.89129996
2.773613 1.0944529 0.92099994
2.773613 1.0944529 0.95069999
2.773613 1.0944529 0.98039997
2.773613 1.0944529 1.0101
2.773613 1.0644684 1.0101
2.773613 1.034483 1.0101
2.773613 1.0044975 1.0101
2.773613 0.97451305 1.0101
2.773613 0.94452763 1.0101
2.773613 0.91454315 1.0101
2.773613 0.88455772 1.0101
2.773613 0.85457325 0.029999999
2.773613 0.85457325 0.059700001
2.773613 0.85457325 0.089400001
2.773613 0.85457325 0.1191
2.773613 0.85457325 0.1488
2.773613 0.85457325 0.1785
2.773613 0.85457325 0.20820001
2.773613 0.85457325 0.2379
2.773613 0.85457325 0.2676
2.773613 0.85457325 0.29730001
2.773613 0.85457325 0.32699999
2.773613 0.85457325 0.3567
2.773613 0.85457325 0.38640001
2.773613 0.85457325 0.4161
2.773613 0.85457325 0.44580001
2.773613 0.85457325 0.47549999
2.773613 0.85457325 0.50519997
2.773613 0.85457325 0.53489995
2.773613 0.85457325 0.56459999
2.773613 0.85457325 0.59429997
2.773613 0.85457325 0.62399995
2.773613 0.85457325 0.65369999
2.773613 0.85457325 0.68339998
2.773613 0.85457325 0.71309996
2.773613 0.85457325 0.7428
2.773613 0.85457325 0.77249998
2.773613 0.85457325 0.80219996
2.773613 0.85457325 0.83189994
2.773613 0.85457325 0.86159998
2.773613 0.85457325 0.89129996
2.773613 0.85457325 0.92099994
2.773613 0.85457325 0.95069999
2.773613 0.85457325 0.98039997
2.773613 0.85457325 1.0101
2.773613 0.82458782 0.029999999
2.773613 0.82458782 0.059700001
2.773613 0.82458782 0.089400001
2.773613 0.82458782 0.1191
2.773613 0.82458782 0.1488
2.773613 0.82458782 0.1785
2.773613 0.82458782 0.20820001
2.773613 0.82458782 0.2379
2.773613 0.82458782 0.2676
2.773613 0.82458782 0.29730001
2.773613 0.82458782 0.32699999
2.773613 0.82458782 0.3567
2.773613 0.82458782 0.38640001
2.773613 0.82458782 0.4161
2.773613 0.82458782 0.44580001
2.773613 0.82458782 0.47549999
2.773613 0.82458782 0.50519997
2.773613 0.82458782 0.53489995
2.773613 0.82458782 0.56459999
2.773613 0.82458782 0.59429997
2.773613 0.82458782 0.62399995
2.773613 0.82458782 0.65369999
2.773613 0.82458782 0.68339998
2.773613 0.82458782 0.71309996
2.773613 0.82458782 0.7428
2.773613 0.82458782 0.77249998
2.773613 0.82458782 0.80219996
2.773613 0.82458782 0.83189994
2.773613 0.82458782 0.86159998
2.773613 0.82458782 0.89129996
2.773613 0.82458782 0.92099994
2.773613 0.82458782 0.95069999
2.773613 0.82458782 0.98039997
2.773613 0.82458782 1.0101
2.773613 0.79460335 0.029999999
2.773613 0.79460335 0.059700001
2.773613 0.79460335 0.089400001
2.773613 0.79460335 0.1191
2.773613 0.79460335 0.1488
2.773613 0.79460335 0.1785
2.773613 0.79460335 0.20820001
2.773613 0.79460335 0.2379
2.773613 0.79460335 0.2676
2.773613 0.79460335 0.29730001
2.773613 0.79460335 0.32699999
2.773613 0.79460335 0.3567
2.773613 0.79460335 0.38640001
2.773613 0.79460335 0.4161
2.773613 0.79460335 0.44580001
2.773613 0.79460335 0.47549999
2.773613 0.79460335 0.50519997
2.773613 0.79460335 0.53489995
2.773613 0.79460335 0.56459999
2.773613 0.79460335 0.59429997
2.773613 0.79460335 0.62399995
2.773613 0.79460335 0.65369999
2.773613 0.79460335 0.68339998
2.773613 0.79460335 0.71309996
2.773613 0.79460335 0.7428
2.773613 0.79460335 0.77249998
2.773613 0.79460335 0.80219996
2.773613 0.79460335 0.83189994
2.773613 0.79460335 0.86159998
2.773613 0.79460335 0.89129996
2.773613 0.79460335 0.92099994
2.773613 0.79460335 0.95069999
2.773613 0.79460335 0.98039997
2.773613 0.76461792 0.029999999
2.773613 0.76461792 0.059700001
2.773613 0.76461792 0.089400001
2.773613 0.76461792 0.1191
2.773613 0.76461792 0.1488
2.773613 0.76461792 0.1785
2.773613 0.76461792 0.20820001
2.773613 0.76461792 0.2379
2.773613 0.76461792 0.2676
2.773613 0.76461792 0.29730001
2.773613 0.76461792 0.32699999
2.773613 0.76461792 0.3567
2.773613 0.76461792 0.38640001
2.773613 0.76461792 0.4161
2.773613 0.76461792 0.44580001
2.773613 0.76461792 0.47549999
2.773613 0.76461792 0.50519997
2.773613 0.76461792 0.53489995
2.773613 0.76461792 0.56459999
2.773613 0.76461792 0.59429997
2.773613 0.76461792 0.62399995
2.773613 0.76461792 0.65369999
2.773613 0.76461792 0.68339998
2.773613 0.76461792 0.71309996
2.773613 0.76461792 0.7428
2.773613 0.76461792 0.77249998
2.773613 0.76461792 0.80219996
2.773613 0.76461792 0.83189994
2.773613 0.76461792 0.86159998
2.773613 0.76461792 0.89129996
2.773613 0.76461792 0.92099994
2.773613 0.76461792 0.95069999
2.773613 0.76461792 0.98039997
2.8035984 1.2143927 0.029999999
2.8035984 1.2143927 0.059700001
2.8035984 1.2143927 0.089400001
2.8035984 1.2143927 0.1191
2.8035984 1.2143927 0.1488
2.8035984 1.2143927 0.1785
2.8035984 1.2143927 0.20820001
2.8035984 1.2143927 0.2379
2.8035984 1.2143927 0.2676
2.8035984 1.2143927 0.29730001
2.8035984 1.2143927 0.32699999
2.8035984 1.2143927 0.3567
2.8035984 1.2143927 0.38640001
2.8035984 1.2143927 0.4161
2.8035984 1.2143927 0.44580001
2.8035984 1.2143927 0.47549999
2.8035984 1.2143927 0.50519997
2.8035984 1.2143927 0.53489995
2.8035984 1.2143927 0.56459999
2.8035984 1.2143927 0.59429997
2.8035984 1.2143927 0.62399995
2.8035984 1.2143927 0.65369999
2.8035984 1.2143927 0.68339998
2.8035984 1.2143927 0.71309996
2.8035984 1.2143927 0.7428
2.8035984 1.2143927 0.77249998
2.8035984 1.2143927 0.80219996
2.8035984 1.2143927 0.83189994
2.8035984 1.2143927 0.86159998
2.8035984 1.2143927 0.89129996
2.8035984 1.2143927 0.92099994
2.8035984 1.2143927 0.95069999
2.8035984 1.2143927 0.98039997
2.8035984 1.1844082 0.029999999
2.8035984 1.1844082 0.059700001
2.8035984 1.1844082 0.089400001
2.8035984 1.1844082 0.1191
2.8035984 1.1844082 0.1488
2.8035984 1.1844082 0.1785
2.8035984 1.1844082 0.20820001
2.8035984 1.1844082 0.2379
2.8035984 1.1844082 0.2676
2.8035984 1.1844082 0.29730001
2.8035984 1.1844082 0.32699999
2.8035984 1.1844082 0.3567
2.8035984 1.1844082 0.38640001
2.8035984 1.1844082 0.4161
2.8035984 1.1844082 0.44580001
2.8035984 1.1844082 0.47549999
2.8035984 1.1844082 0.50519997
2.8035984 1.1844082 0.53489995
2.8035984 1.1844082 0.56459999
2.8035984 1.1844082 0.59429997
2.8035984 1.1844082 0.62399995
2.8035984 1.1844082 0.65369999
2.8035984 1.1844082 0.68339998
2.8035984 1.1844082 0.71309996
2.8035984 1.1844082 0.7428
2.8035984 1.1844082 0.77249998
2.8035984 1.1844082 0.80219996
2.8035984 1.1844082 0.83189994
2.8035984 1.1844082 0.86159998
2.8035984 1.1844082 0.89129996
2.8035984 1.1844082 0.92099994
2.8035984 1.1844082 0.95069999
2.8035984 1.1844082 0.98039997
2.8035984 1.1844082 1.0101
2.8035984 1.1544228 1.0101
2.8035984 1.1244383 1.0101
2.8035984 1.0944529 1.0101
2.8035984 1.0644684 1.0101
2.8035984 1.034483 1.0101
2.8035984 1.0044975 1.0101
2.8035984 0.97451305 1.0101
2.8035984 0.94452763 1.0101
2.8035984 0.91454315 1.0101
2.8035984 0.88455772 1.0101
2.8035984 0.85457325 1.0101
2.8035984 0.82458782 1.0101
2.8035984 0.79460335 1.0101
2.8035984 0.76461792 1.0101
2.8035984 0.73463249 0.029999999
2.8035984 0.73463249 0.059700001
2.8035984 0.73463249 0.089400001
2.8035984 0.73463249 0.1191
2.8035984 0.73463249 0.1488
2.8035984 0.73463249 0.1785
2.8035984 0.73463249 0.20820001
2.8035984 0.73463249 0.2379
2.8035984 0.73463249 0.2676
2.8035984 0.73463249 0.29730001
2.8035984 0.73463249 0.32699999
2.8035984 0.73463249 0.3567
2.8035984 0.73463249 0.38640001
2.8035984 0.73463249 0.4161
2.8035984 0.73463249 0.44580001
2.8035984 0.73463249 0.47549999
2.8035984 0.73463249 0.50519997
2.8035984 0.73463249 0.53489995
2.8035984 0.73463249 0.56459999
2.8035984 0.73463249 0.59429997
2.8035984 0.73463249 0.62399995
2.8035984 0.73463249 0.65369999
2.8035984 0.73463249 0.68339998
2.8035984 0.73463249 0.71309996
2.8035984 0.73463249 0.7428
2.8035984 0.73463249 0.77249998
2.8035984 0.73463249 0.80219996
2.8035984 0.73463249 0.83189994
2.8035984 0.73463249 0.86159998
2.8035984 0.73463249 0.89129996
2.8035984 0.73463249 0.92099994
2.8035984 0.73463249 0.95069999
2.8035984 0.73463249 0.98039997
2.8035984 0.73463249 1.0101
2.8035984 0.70464802 0.029999999
2.8035984 0.70464802 0.059700001
2.8035984 0.70464802 0.089400001
2.8035984 0.70464802 0.1191
2.8035984 0.70464802 0.1488
2.8035984 0.70464802 0.1785
2.8035984 0.70464802 0.20820001
2.8035984 0.70464802 0.2379
2.8035984 0.70464802 0.2676
2.8035984 0.70464802 0.29730001
2.8035984 0.70464802 0.32699999
2.8035984 0.70464802 0.3567
2.8035984 0.70464802 0.38640001
2.8035984 0.70464802 0.4161
2.8035984 0.70464802 0.44580001
2.8035984 0.70464802 0.47549999
2.8035984 0.70464802 0.50519997
2.8035984 0.70464802 0.53489995
2.8035984 0.70464802 0.56459999
2.8035984 0.70464802 0.59429997
2.8035984 0.70464802 0.62399995
2.8035984 0.70464802 0.65369999
2.8035984 0.70464802 0.68339998
2.8035984 0.70464802 0.71309996
2.8035984 0.70464802 0.7428
2.8035984 0.70464802 0.77249998
2.8035984 0.70464802 0.80219996
2.8035984 0.70464802 0.83189994
2.8035984 0.70464802 0.86159998
2.8035984 0.70464802 0.89129996
2.8035984 0.70464802 0.92099994
2.8035984 0.70464802 0.95069999
2.8035984 0.70464802 0.98039997
2.8335829 1.2443781 0.029999999
2.8335829 1.2443781 0.059700001
2.8335829 1.2443781 0.089400001
2.8335829 1.2443781 0.1191
2.8335829 1.2443781 0.1488
2.8335829 1.2443781 0.1785
2.8335829 1.2443781 0.20820001
2.8335829 1.2443781 0.2379
2.8335829 1.2443781 0.2676
2.8335829 1.2443781 0.29730001
2.8335829 1.2443781 0.32699999
2.8335829 1.2443781 0.3567
2.8335829 1.2443781 0.38640001
2.8335829 1.2443781 0.4161
2.8335829 1.2443781 0.44580001
2.8335829 1.2443781 0.47549999
2.8335829 1.2443781 0.50519997
2.8335829 1.2443781 0.53489995
2.8335829 1.2443781 0.56459999
2.8335829 1.2443781 0.59429997
2.8335829 1.2443781 0.62399995
2.8335829 1.2443781 0.65369999
2.8335829 1.2443781 0.68339998
2.8335829 1.2443781 0.71309996
2.8335829 1.2443781 0.7428
2.8335829 1.2443781 0.77249998
2.8335829 1.2443781 0.80219996
2.8335829 1.2443781 0.83189994
2.8335829 1.2443781 0.86159998
2.8335829 1.2443781 0.89129996
2.8335829 1.2443781 0.92099994
2.8335829 1.2443781 0.95069999
2.8335829 1.2443781 0.98039997
2.8335829 1.2443781 1.0101
2.8335829 1.2143927 1.0101
2.8335829 1.1844082 1.0101
2.8335829 1.1544228 1.0101
2.8335829 1.1244383 1.0101
2.8335829 1.0944529 1.0101
2.8335829 1.0644684 1.0101
2.8335829 1.034483 1.0101
2.8335829 1.0044975 1.0101
2.8335829 0.97451305 1.0101
2.8335829 0.94452763 1.0101
2.8335829 0.91454315 1.0101
2.8335829 0.88455772 1.0101
2.8335829 0.85457325 1.0101
2.8335829 0.82458782 1.0101
2.8335829 0.79460335 1.0101
2.8335829 0.76461792 1.0101
2.8335829 0.73463249 1.0101
2.8335829 0.70464802 0.029999999
2.8335829 0.70464802 0.059700001
2.8335829 0.70464802 0.089400001
2.8335829 0.70464802 0.1191
2.8335829 0.70464802 0.1488
2.8335829 0.70464802 0.1785
2.8335829 0.70464802 0.20820001
2.8335829 0.70464802 0.2379
2.8335829 0.70464802 0.2676
2.8335829 0.70464802 0.29730001
2.8335829 0.70464802 0.32699999
2.8335829 0.70464802 0.3567
2.8335829 0.70464802 0.38640001
2.8335829 0.70464802 0.4161
2.8335829 0.70464802 0.44580001
2.8335829 0.70464802 0.47549999
2.8335829 0.70464802 0.50519997
2.8335829 0.70464802 0.53489995
2.8335829 0.70464802 0.56459999
2.8335829 0.70464802 0.59429997
2.8335829 0.70464802 0.62399995
2.8335829 0.70464802 0.65369999
2.8335829 0.70464802 0.68339998
2.8335829 0.70464802 0.71309996
2.8335829 0.70464802 0.7428
2.8335829 0.70464802 0.77249998
2.8335829 0.70464802 0.80219996
2.8335829 0.70464802 0.83189994
2.8335829 0.70464802 0.86159998
2.8335829 0.70464802 0.89129996
2.8335829 0.70464802 0.92099994
2.8335829 0.70464802 0.95069999
2.8335829 0.70464802 0.98039997
2.8335829 0.70464802 1.0101
2.8335829 0.67466259 0.029999999
2.8335829 0.67466259 0.059700001
2.8335829 0.67466259 0.089400001
2.8335829 0.67466259 0.1191
2.8335829 0.67466259 0.1488
2.8335829 0.67466259 0.1785
2.8335829 0.67466259 0.20820001
2.8335829 0.67466259 0.2379
2.8335829 0.67466259 0.2676
2.8335829 0.67466259 0.29730001
2.8335829 0.67466259 0.32699999
2.8335829 0.67466259 0.3567
2.8335829 0.67466259 0.38640001
2.8335829 0.67466259 0.4161
2.8335829 0.67466259 0.44580001
2.8335829 0.67466259 0.47549999
2.8335829 0.67466259 0.50519997
2.8335829 0.67466259 0.53489995
2.8335829 0.67466259 0.56459999
2.8335829 0.67466259 0.59429997
2.8335829 0.67466259 0.62399995
2.8335829 0.67466259 0.65369999
2.8335829 0.67466259 0.68339998
2.8335829 0.67466259 0.71309996
2.8335829 0.67466259 0.7428
2.8335829 0.67466259 0.77249998
2.8335829 0.67466259 0.80219996
2.8335829 0.67466259 0.83189994
2.8335829 0.67466259 0.86159998
2.8335829 0.67466259 0.89129996
2.8335829 0.67466259 0.92099994
2.8335829 0.67466259 0.95069999
2.8335829 0.67466259 0.98039997
2.8635683 1.2743626 0.029999999
2.8635683 1.2743626 0.059700001
2.8635683 1.2743626 0.089400001
2.8635683 1.2743626 0.1191
2.8635683 1.2743626 0.1488
2.8635683 1.2743626 0.1785
2.8635683 1.2743626 0.20820001
2.8635683 1.2743626 0.2379
2.8635683 1.2743626 0.2676
2.8635683 1.2743626 0.29730001
2.8635683 1.2743626 0.32699999
2.8635683 1.2743626 0.3567
2.8635683 1.2743626 0.38640001
2.8635683 1.2743626 0.4161
2.8635683 1.2743626 0.44580001
2.8635683 1.2743626 0.47549999
2.8635683 1.2743626 0.50519997
2.8635683 1.2743626 0.53489995
2.8635683 1.2743626 0.56459999
2.8635683 1.2743626 0.59429997
2.8635683 1.2743626 0.62399995
2.8635683 1.2743626 0.65369999
2.8635683 1.2743626 0.68339998
2.8635683 1.2743626 0.71309996
2.8635683 1.2743626 0.7428
2.8635683 1.2743626 0.77249998
2.8635683 1.2743626 0.80219996
2.8635683 1.2743626 0.83189994
2.8635683 1.2743626 0.86159998
2.8635683 1.2743626 0.89129996
2.8635683 1.2743626 0.92099994
2.8635683 1.2743626 0.95069999
2.8635683 1.2743626 0.98039997
2.8635683 1.2743626 1.0101
2.8635683 1.2443781 1.0101
2.8635683 1.2143927 1.0101
2.8635683 1.1844082 1.0101
2.8635683 1.1544228 1.0101
2.8635683 1.1244383 1.0101
2.8635683 1.0944529 1.0101
2.8635683 1.0644684 1.0101
2.8635683 1.034483 1.0101
2.8635683 1.0044975 1.0101
2.8635683 0.97451305 1.0101
2.8635683 0.94452763 1.0101
2.8635683 0.91454315 1.0101
2.8635683 0.88455772 1.0101
2.8635683 0.85457325 1.0101
2.8635683 0.82458782 1.0101
2.8635683 0.79460335 1.0101
2.8635683 0.76461792 1.0101
2.8635683 0.73463249 1.0101
2.8635683 0.70464802 1.0101
2.8635683 0.67466259 1.0101
2.8635683 0.64467812 0.029999999
2.8635683 0.64467812 0.059700001
2.8635683 0.64467812 0.089400001
2.8635683 0.64467812 0.1191
2.8635683 0.64467812 0.1488
2.8635683 0.64467812 0.1785
2.8635683 0.64467812 0.20820001
2.8635683 0.64467812 0.2379
2.8635683 0.64467812 0.2676
2.8635683 0.64467812 0.29730001
2.8635683 0.64467812 0.32699999
2.8635683 0.64467812 0.3567
2.8635683 0.64467812 0.38640001
2.8635683 0.64467812 0.4161
2.8635683 0.64467812 0.44580001
2.8635683 0.64467812 0.47549999
2.8635683 0.64467812 0.50519997
2.8635683 0.64467812 0.53489995
2.8635683 0.64467812 0.56459999
2.8635683 0.64467812 0.59429997
2.8635683 0.64467812 0.62399995
2.8635683 0.64467812 0.65369999
2.8635683 0.64467812 0.68339998
2.8635683 0.64467812 0.71309996
2.8635683 0.64467812 0.7428
2.8635683 0.64467812 0.77249998
2.8635683 0.64467812 0.80219996
2.8635683 0.64467812 0.83189994
2.8635683 0.64467812 0.86159998
2.8635683 0.64467812 0.89129996
2.8635683 0.64467812 0.92099994
2.8635683 0.64467812 0.95069999
2.8635683 0.64467812 0.98039997
2.8635683 0.64467812 1.0101
2.8935528 1.3343334 0.029999999
2.8935528 1.3343334 0.059700001
2.8935528 1.3343334 0.089400001
2.8935528 1.3343334 0.1191
2.8935528 1.3343334 0.1488
2.8935528 1.3343334 0.1785
2.8935528 1.3343334 0.20820001
2.8935528 1.3343334 0.2379
2.8935528 1.3343334 0.2676
2.8935528 1.3343334 0.29730001
2.8935528 1.3343334 0.32699999
2.8935528 1.3343334 0.3567
2.8935528 1.3343334 0.38640001
2.8935528 1.3343334 0.4161
2.8935528 1.3343334 0.44580001
2.8935528 1.3343334 0.47549999
2.8935528 1.3343334 0.50519997
2.8935528 1.3343334 0.53489995
2.8935528 1.3343334 0.56459999
2.8935528 1.3343334 0.59429997
2.8935528 1.3343334 0.62399995
2.8935528 1.3343334 0.65369999
2.8935528 1.3343334 0.68339998
2.8935528 1.3343334 0.71309996
2.8935528 1.3343334 0.7428
2.8935528 1.3343334 0.77249998
2.8935528 1.3343334 0.80219996
2.8935528 1.3343334 0.83189994
2.8935528 1.3343334 0.86159998
2.8935528 1.3343334 0.89129996
2.8935528 1.3343334 0.92099994
2.8935528 1.3343334 0.95069999
2.8935528 1.3343334 0.98039997
2.8935528 1.304348 0.029999999
2.8935528 1.304348 0.059700001
2.8935528 1.304348 0.089400001
2.8935528 1.304348 0.1191
2.8935528 1.304348 0.1488
2.8935528 1.304348 0.1785
2.8935528 1.304348 0.20820001
2.8935528 1.304348 0.2379
2.8935528 1.304348 0.2676
2.8935528 1.304348 0.29730001
2.8935528 1.304348 0.32699999
2.8935528 1.304348 0.3567
2.8935528 1.304348 0.38640001
2.8935528 1.304348 0.4161
2.8935528 1.304348 0.44580001
2.8935528 1.304348 0.47549999
2.8935528 1.304348 0.50519997
2.8935528 1.304348 0.53489995
2.8935528 1.304348 0.56459999
2.8935528 1.304348 0.59429997
2.8935528 1.304348 0.62399995
2.8935528 1.304348 0.65369999
2.8935528 1.304348 0.68339998
2.8935528 1.304348 0.71309996
2.8935528 1.304348 0.7428
2.8935528 1.304348 0.77249998
2.8935528 1.304348 0.80219996
2.8935528 1.304348 0.83189994
2.8935528 1.304348 0.86159998
2.8935528 1.304348 0.89129996
2.8935528 1.304348 0.92099994
2.8935528 1.304348 0.95069999
2.8935528 1.304348 0.98039997
2.8935528 1.304348 1.0101
2.8935528 1.2743626 1.0101
2.8935528 1.2443781 1.0101
2.8935528 1.2143927 1.0101
2.8935528 1.1844082 1.0101
2.8935528 1.1544228 1.0101
2.8935528 1.1244383 1.0101
2.8935528 1.0944529 1.0101
2.8935528 1.0644684 1.0101
2.8935528 1.034483 1.0101
2.8935528 1.0044975 1.0101
2.8935528 0.97451305 1.0101
2.8935528 0.94452763 1.0101
2.8935528 0.91454315 1.0101
2.8935528 0.88455772 1.0101
2.8935528 0.85457325 1.0101
2.8935528 0.82458782 1.0101
2.8935528 0.79460335 1.0101
2.8935528 0.76461792 1.0101
2.8935528 0.73463249 1.0101
2.8935528 0.70464802 1.0101
2.8935528 0.67466259 1.0101
2.8935528 0.64467812 1.0101
2.8935528 0.61469269 0.029999999
2.8935528 0.61469269 0.059700001
2.8935528 0.61469269 0.089400001
2.8935528 0.61469269 0.1191
2.8935528 0.61469269 0.1488
2.8935528 0.61469269 0.1785
2.8935528 0.61469269 0.20820001
2.8935528 0.61469269 0.2379
2.8935528 0.61469269 0.2676
2.8935528 0.61469269 0.29730001
2.8935528 0.61469269 0.32699999
2.8935528 0.61469269 0.3567
2.8935528 0.61469269 0.38640001
2.8935528 0.61469269 0.4161
2.8935528 0.61469269 0.44580001
2.8935528 0.61469269 0.47549999
2.8935528 0.61469269 0.50519997
2.8935528 0.61469269 0.53489995
2.8935528 0.61469269 0.56459999
2.8935528 0.61469269 0.59429997
2.8935528 0.61469269 0.62399995
2.8935528 0.61469269 0.65369999
2.8935528 0.61469269 0.68339998
2.8935528 0.61469269 0.71309996
2.8935528 0.61469269 0.7428
2.8935528 0.61469269 0.77249998
2.8935528 0.61469269 0.80219996
2.8935528 0.61469269 0.83189994
2.8935528 0.61469269 0.86159998
2.8935528 0.61469269 0.89129996
2.8935528 0.61469269 0.92099994
2.8935528 0.61469269 0.95069999
2.8935528 0.61469269 0.98039997
2.8935528 0.61469269 1.0101
2.9235382 1.3343334 0.029999999
2.9235382 1.3343334 0.059700001
2.9235382 1.3343334 0.089400001
2.9235382 1.3343334 0.1191
2.9235382 1.3343334 0.1488
2.9235382 1.3343334 0.1785
2.9235382 1.3343334 0.20820001
2.9235382 1.3343334 0.2379
2.9235382 1.3343334 0.2676
2.9235382 1.3343334 0.29730001
2.9235382 1.3343334 0.32699999
2.9235382 1.3343334 0.3567
2.9235382 1.3343334 0.38640001
2.9235382 1.3343334 0.4161
2.9235382 1.3343334 0.44580001
2.9235382 1.3343334 0.47549999
2.9235382 1.3343334 0.50519997
2.9235382 1.3343334 0.53489995
2.9235382 1.3343334 0.56459999
2.9235382 1.3343334 0.59429997
2.9235382 1.3343334 0.62399995
2.9235382 1.3343334 0.65369999
2.9235382 1.3343334 0.68339998
2.9235382 1.3343334 0.71309996
2.9235382 1.3343334 0.7428
2.9235382 1.3343334 0.77249998
2.9235382 1.3343334 0.80219996
2.9235382 1.3343334 0.83189994
2.9235382 1.3343334 0.86159998
2.9235382 1.3343334 0.89129996
2.9235382 1.3343334 0.92099994
2.9235382 1.3343334 0.95069999
2.9235382 1.3343334 0.98039997
2.9235382 1.3343334 1.0101
2.9235382 1.304348 1.0101
2.9235382 1.2743626 1.0101
2.9235382 1.2443781 1.0101
2.9235382 1.2143927 1.0101
2.9235382 1.1844082 1.0101
2.9235382 1.1544228 1.0101
2.9235382 1.1244383 1.0101
2.9235382 1.0944529 1.0101
2.9235382 1.0644684 1.0101
2.9235382 1.034483 1.0101
2.9235382 1.0044975 1.0101
2.9235382 0.97451305 1.0101
2.9235382 0.94452763 1.0101
2.9235382 0.91454315 1.0101
2.9235382 0.88455772 1.0101
2.9235382 0.85457325 1.0101
2.9235382 0.82458782 1.0101
2.9235382 0.79460335 1.0101
2.9235382 0.76461792 1.0101
2.9235382 0.73463249 1.0101
2.9235382 0.70464802 1.0101
2.9235382 0.67466259 1.0101
2.9235382 0.64467812 1.0101
2.9235382 0.61469269 1.0101
2.9235382 0.58470821 0.029999999
2.9235382 0.58470821 0.059700001
2.9235382 0.58470821 0.089400001
2.9235382 0.58470821 0.1191
2.9235382 0.58470821 0.1488
2.9235382 0.58470821 0.1785
2.9235382 0.58470821 0.20820001
2.9235382 0.58470821 0.2379
2.9235382 0.58470821 0.2676
2.9235382 0.58470821 0.29730001
2.9235382 0.58470821 0.32699999
2.9235382 0.58470821 0.3567
2.9235382 0.58470821 0.38640001
2.9235382 0.58470821 0.4161
2.9235382 0.58470821 0.44580001
2.9235382 0.58470821 0.47549999
2.9235382 0.58470821 0.50519997
2.9235382 0.58470821 0.53489995
2.9235382 0.58470821 0.56459999
2.9235382 0.58470821 0.59429997
2.9235382 0.58470821 0.62399995
2.9235382 0.58470821 0.65369999
2.9235382 0.58470821 0.68339998
2.9235382 0.58470821 0.71309996
2.9235382 0.58470821 0.7428
2.9235382 0.58470821 0.77249998
2.9235382 0.58470821 0.80219996
2.9235382 0.58470821 0.83189994
2.9235382 0.58470821 0.86159998
2.9235382 0.58470821 0.89129996
2.9235382 0.58470821 0.92099994
2.9235382 0.58470821 0.95069999
2.9235382 0.58470821 0.98039997
2.9235382 0.58470821 1.0101
2.9535227 1.3643179 0.029999999
2.9535227 1.3643179 0.059700001
2.9535227 1.3643179 0.089400001
2.9535227 1.3643179 0.1191
2.9535227 1.3643179 0.1488
2.9535227 1.3643179 0.1785
2.9535227 1.3643179 0.20820001
2.9535227 1.3643179 0.2379
2.9535227 1.3643179 0.2676
2.9535227 1.3643179 0.29730001
2.9535227 1.3643179 0.32699999
2.9535227 1.3643179 0.3567
2.9535227 1.3643179 0.38640001
2.9535227 1.3643179 0.4161
2.9535227 1.3643179 0.44580001
2.9535227 1.3643179 0.47549999
2.9535227 1.3643179 0.50519997
2.9535227 1.3643179 0.53489995
2.9535227 1.3643179 0.56459999
2.9535227 1.3643179 0.59429997
2.9535227 1.3643179 0.62399995
2.9535227 1.3643179 0.65369999
2.9535227 1.3643179 0.68339998
2.9535227 1.3643179 0.71309996
2.9535227 1.3643179 0.7428
2.9535227 1.3643179 0.77249998
2.9535227 1.3643179 0.80219996
2.9535227 1.3643179 0.83189994
2.9535227 1.3643179 0.86159998
2.9535227 1.3643179 0.89129996
2.9535227 1.3643179 0.92099994
2.9535227 1.3643179 0.95069999
2.9535227 1.3643179 0.98039997
2.9535227 1.3643179 1.0101
2.9535227 1.3343334 1.0101
2.9535227 1.304348 1.0101
2.9535227 1.2743626 1.0101
2.9535227 1.2443781 1.0101
2.9535227 1.2143927 1.0101
2.9535227 1.1844082 1.0101
2.9535227 1.1544228 1.0101
2.9535227 1.1244383 1.0101
2.9535227 1.0944529 1.0101
2.9535227 1.0644684 1.0101
2.9535227 1.034483 1.0101
2.9535227 1.0044975 1.0101
2.9535227 0.97451305 1.0101
